-2.1692620218e-01 -1.7681376636e-01 -5.7080787420e-01 -9.7978699207e-01 1.9000400603e-01 -6.2575601041e-02
-6.7448340356e-02 -5.5573594570e-01 -4.9312946200e-01 8.7809300423e-01 -4.7589099407e-01 4.9800101668e-02
-2.1039471030e-01 -3.9284333587e-01 -5.2523463964e-01 -9.9772202969e-01 -5.2862901241e-02 -4.1901301593e-02
1.5989628434e-01 2.4079495668e-01 -7.4865263700e-01 -9.2209500074e-01 3.6467298865e-01 1.2944099307e-01
2.4561761320e-01 -5.6940257549e-01 -8.4015822411e-01 1.6354300082e-01 -8.9026898146e-01 -4.2505899072e-01
1.5370693803e-01 -3.8616690040e-01 6.5902233124e-01 -2.7012599632e-02 9.9898201227e-01 -3.6125499755e-02
2.5191536546e-01 -3.2717841864e-01 -1.7009858787e-01 7.9268199205e-01 -6.0880202055e-01 3.1852100044e-02
-1.6013608873e-01 -2.4597646296e-01 5.5100959539e-01 -5.5819398165e-01 8.2234197855e-01 1.1033400148e-01
-1.5297390521e-01 -2.5809574872e-02 -6.8186110258e-01 -9.3081700802e-01 -3.5769599676e-01 7.5057901442e-02
2.8601232171e-01 -5.6741112471e-01 2.2355489433e-01 4.6715598553e-02 -7.2648298740e-01 6.8559497595e-01
2.7854862809e-01 -1.1519332230e-01 2.8590360284e-01 9.0878999233e-01 4.1719201207e-01 7.1519301273e-03
1.6469343007e-01 -8.3056971431e-02 1.1491411924e-01 -4.4908198714e-01 -8.0919200182e-01 -3.7885698676e-01
1.1323907971e-01 -1.9130751491e-01 -9.1526907682e-01 -3.5852798820e-01 2.0651599765e-01 9.1038900614e-01
1.9121426344e-01 -1.4914587140e-02 -8.3318360150e-02 -6.6268700361e-01 -6.6413098574e-01 -3.4608599544e-01
-5.1186610013e-02 -7.3574483395e-02 9.4457305968e-02 -3.3549600840e-01 9.1098797321e-01 -2.3988300562e-01
-1.5426447988e-01 -3.7259447575e-01 -8.3883041143e-01 -8.3580100536e-01 2.9547199607e-01 -4.6274501085e-01
-8.8750638068e-02 5.1146652550e-02 -8.5418862104e-01 -8.1636697054e-01 2.6570600271e-01 -5.1278197765e-01
3.3816513419e-01 -3.8893029094e-01 3.6703443527e-01 8.8684099913e-01 4.1442900896e-01 -2.0435599983e-01
2.5528711081e-01 -2.4089814723e-01 7.1261817217e-01 5.9102898836e-01 7.8149801493e-01 1.9986400008e-01
3.5489249229e-01 -4.6892908216e-01 6.6206550598e-01 9.6917700768e-01 1.6993199289e-01 1.7837800086e-01
6.2679462135e-02 -3.0485585332e-01 -6.5876758099e-01 7.5189101696e-01 -6.1679697037e-01 -2.3285600543e-01
-3.5796709359e-02 1.2950053811e-01 -2.0308652520e-01 4.6832301450e-05 -2.5386500359e-01 -9.6723997593e-01
-5.9479150921e-02 -5.6730633974e-01 -7.3739314079e-01 5.4806500673e-01 -8.3400601149e-01 6.3710503280e-02
1.5036566556e-01 -2.6090174913e-01 -7.8065621853e-01 -1.1950899847e-02 -9.9526101351e-01 9.6504196525e-02
2.5070744753e-01 3.8535302877e-01 -5.7887047529e-01 -7.3871999979e-01 6.7197698355e-01 -5.2340000868e-02
-6.3425540924e-02 -3.2178646326e-01 -9.3800485134e-01 -4.3611401320e-01 -9.3893401325e-02 -8.9498001337e-01
1.0045390576e-01 -1.6525821388e-01 3.0737730861e-01 5.0488799810e-02 -9.7724497318e-01 -2.0601899922e-01
-5.3296808619e-04 -5.6037992239e-01 1.1217512935e-01 -3.3882901073e-01 -8.8613498211e-01 3.1616500020e-01
-1.5689846873e-01 -2.5763541460e-02 -5.3712826967e-01 -9.9368500710e-01 1.1219400167e-01 -1.2200300116e-03
-7.3399893939e-02 -5.5630254745e-01 4.6633964777e-01 -9.1238599271e-04 -9.9868398905e-01 5.1275100559e-02
2.9922699928e-01 -1.2845478952e-01 -6.3272440434e-01 9.9935197830e-01 1.9322099164e-02 3.0368000269e-02
-5.0261866301e-02 -3.5958576202e-01 9.7870045900e-01 -4.1035300493e-01 2.3707599938e-01 8.8057100773e-01
2.1202132106e-01 4.5291015506e-01 -2.2706481814e-01 7.4357402325e-01 2.0031900704e-01 6.3794201612e-01
-1.4437776990e-02 -4.0579313040e-01 4.2747130990e-01 -8.7242901325e-02 9.9614500999e-01 9.1435099021e-03
1.8339899182e-01 -3.9162728190e-01 4.1004481912e-01 -7.3451697826e-02 9.9633300304e-01 -4.3880898505e-02
1.4504213631e-01 -5.1182967424e-01 -9.7706091404e-01 1.3263000548e-01 -4.9297198653e-01 -8.5987699032e-01
-2.8041031957e-01 -5.5088108778e-01 -8.3740420640e-02 -8.5086101294e-01 -2.4059899151e-02 -5.2483999729e-01
1.4452724159e-01 -1.3847318292e-01 -9.5577484369e-01 5.1551800966e-01 1.4983099699e-01 -8.4367698431e-01
2.7022662759e-01 -5.3450912237e-01 -4.0345034003e-01 9.5189899206e-01 5.7794399559e-02 3.0091300607e-01
-2.0717200637e-01 -1.8380591273e-01 -1.2365208566e-01 -8.3969801664e-01 5.3671401739e-01 8.2739301026e-02
1.3326232135e-01 2.7558493894e-03 -4.2312058806e-01 5.4645198584e-01 -7.6043397188e-01 3.5090100765e-01
-2.0641458035e-01 -2.3836034536e-01 3.3139079809e-01 -6.7533999681e-01 7.3447501659e-01 6.6802702844e-02
3.0264958739e-01 -3.5482519865e-01 5.6205433607e-01 -9.7155398130e-01 -1.4711900055e-01 -1.8557900190e-01
-2.3932667077e-01 -3.2045996189e-01 -4.2261180282e-01 -9.8638498783e-01 -1.5876199305e-01 -4.2878501117e-02
-2.0773023367e-01 -4.5184263587e-01 -7.5993925333e-01 -8.5885697603e-01 4.6414399147e-01 -2.1664699912e-01
-1.1942230165e-01 -4.7950366139e-01 9.0473449230e-01 5.8044701815e-02 -9.9449300766e-01 8.7258197367e-02
-1.9356667995e-02 -6.1187647283e-02 1.0019613802e-01 -5.3753298521e-01 5.9620797634e-01 5.9631699324e-01
3.3582154661e-02 2.0620666444e-02 -8.3915555477e-01 -2.8184300661e-01 -4.8144000769e-01 8.2992798090e-01
-1.9939535856e-01 -5.7204920053e-01 -9.9620938301e-02 -2.4524299800e-01 -7.7385598421e-01 -5.8395498991e-01
8.8582642376e-02 -2.0336339250e-02 2.4407548830e-02 5.0751801580e-02 -7.7188497782e-01 -6.3373398781e-01
6.1503782868e-02 -2.6851513982e-01 -8.7410616875e-01 2.9348399490e-02 -9.9742501974e-01 6.5430298448e-02
-3.4352931380e-01 -5.6682771444e-01 2.4043263495e-01 1.2668999843e-02 -7.0770001411e-01 7.0639902353e-01
1.4226992428e-01 -2.3018534482e-01 -3.3675295115e-01 -1.7106099427e-01 9.4077497721e-01 2.9271298647e-01
-1.3404002786e-01 -3.0426374078e-01 -8.8176155090e-01 -7.4599099159e-01 -6.9807998836e-02 -6.6228699684e-01
-2.2480513155e-01 -2.8191813827e-01 4.8939594626e-01 -5.9664201736e-01 7.9080200195e-01 1.3656699657e-01
1.4838203788e-01 1.3099096715e-01 -7.6623976231e-01 -7.4387598038e-01 3.3884999156e-01 5.7604598999e-01
2.2674584761e-02 2.3946714401e-01 -2.9947596788e-01 -3.0483001471e-01 7.5555801392e-01 5.7983702421e-01
3.1359812617e-01 5.0022061914e-02 -4.7512033582e-01 9.9839800596e-01 6.2609999441e-03 -5.6241501123e-02
2.5266259909e-01 3.8358488679e-01 -5.5016750097e-01 -9.1593098640e-01 3.5523700714e-01 1.8675099313e-01
-1.0712449439e-02 -5.1014417410e-01 7.4895757437e-01 9.0645897388e-01 -4.1521000862e-01 -7.7024102211e-02
-1.3641726971e-01 2.6783946157e-01 -5.4130619764e-01 -9.5315301418e-01 2.8827399015e-01 -9.1640099883e-02
2.2145640850e-01 -1.7845459282e-01 -7.6283884048e-01 -9.4632297754e-01 -1.7661699653e-01 2.7069899440e-01
2.7356657386e-01 -1.2928667665e-01 -3.8253417611e-01 -9.7009998560e-01 -2.0836600661e-01 1.2445700169e-01
-2.9440611601e-01 -4.7333800793e-01 4.0398393758e-03 -5.3007698059e-01 7.0647901297e-01 -4.6894100308e-01
2.9550090432e-01 3.8781905174e-01 -3.2872629166e-01 9.5827400684e-01 -2.5567200035e-02 2.8470399976e-01
-7.9837195575e-02 -3.2513314486e-01 -1.7658194900e-01 -4.4595498592e-02 9.9737799168e-01 5.7000301778e-02
-1.5860229731e-01 -2.3159448802e-01 1.2407755107e-01 -2.2000600398e-01 -9.5192599297e-01 -2.1315200627e-01
2.1615725756e-01 -3.8258445263e-01 7.4607151747e-01 1.0821199976e-02 9.9454897642e-01 -1.0371100157e-01
2.9825147986e-01 -2.3510931060e-02 -5.6663537025e-01 9.5787698030e-01 -2.0987999439e-01 -1.9601300359e-01
3.5199770331e-01 4.2342671752e-01 -5.3529506922e-01 8.9696902037e-01 -3.9014899731e-01 -2.0791800320e-01
-1.5337292850e-01 -1.1530037969e-01 -3.0713135004e-01 5.9868997335e-01 -4.6533301473e-01 -6.5194702148e-01
-9.1275557876e-02 -5.4389286041e-01 8.3381384611e-02 6.5761202574e-01 -7.4697399139e-01 9.7858697176e-02
-2.7150228620e-01 -4.0441179276e-01 5.0576019287e-01 4.3613800406e-01 8.8163799047e-01 -1.8027099967e-01
3.0250188708e-01 -2.2384901345e-01 -5.6736701727e-01 9.4029498100e-01 2.6314800978e-01 2.1586699784e-01
2.3783487082e-01 2.7992549539e-01 -5.7205241919e-01 -9.4221401215e-01 1.0122000240e-02 3.3485901356e-01
6.4486265182e-02 -2.1968190372e-01 -7.0082342625e-01 -4.6293398738e-01 8.8579899073e-01 -3.2429598272e-02
7.8427396715e-02 -5.2877742052e-01 -9.8531252146e-01 7.5326800346e-02 -2.2221000493e-01 -9.7208499908e-01
6.7048385739e-02 8.2186877728e-02 1.9278304651e-02 -5.2559500933e-01 2.4058899283e-01 8.1600600481e-01
3.1233870983e-01 -1.6822549701e-01 -3.4319285303e-02 9.9661999941e-01 7.6640799642e-02 2.9570400715e-02
-5.1519248635e-02 2.2906798124e-01 -1.0885415971e-01 -4.4510000944e-01 -5.2530400455e-02 8.9393901825e-01
7.2492107749e-02 -1.9350387156e-01 4.7286301851e-01 5.2257901430e-01 -8.5085397959e-01 -5.4391898215e-02
3.2147437334e-01 -3.2860514522e-01 2.6659578085e-01 9.4913101196e-01 -2.2280800343e-01 -2.2249999642e-01
1.0824207962e-01 -3.9769941568e-01 3.9528888464e-01 -5.5659100413e-02 9.9844098091e-01 -4.2043197900e-03
-3.2978508621e-02 3.0978828669e-01 -6.0228508711e-01 9.0896499157e-01 -2.7424800396e-01 3.1395998597e-01
-1.2714815140e-01 4.6353954077e-01 -4.9544975162e-01 -6.9795697927e-01 6.7836701870e-01 -2.2950699925e-01
-6.0585319996e-02 3.2100713253e-01 -7.4495363235e-01 -6.6283300519e-02 8.7752497196e-01 -4.7492799163e-01
-1.0587837547e-01 -2.2881753743e-01 6.1319708824e-01 -4.0096798539e-01 9.0382897854e-01 1.4938999712e-01
1.6773729026e-01 -1.9732613862e-01 6.8986880779e-01 2.3560300469e-01 9.5264297724e-01 1.9225700200e-01
3.1241118908e-01 -5.0161147118e-01 -7.4496048689e-01 9.8499697447e-01 1.9689500332e-02 -1.7144599557e-01
2.6968941092e-01 7.5549883768e-03 -3.3806309104e-02 9.8231899738e-01 1.0815200210e-01 1.5281300247e-01
-1.1440972984e-01 -3.2053820789e-02 -3.9119222760e-01 9.6745598316e-01 -1.8570399284e-01 -1.7188100517e-01
2.3142401874e-01 -4.5373883843e-01 9.1911035776e-01 6.7204701900e-01 -2.3848399520e-01 7.0105499029e-01
-8.7333373725e-02 -9.8219394684e-02 -1.2604852673e-03 6.8597698212e-01 -7.0459598303e-01 -1.8160299957e-01
-1.5951621532e-01 -5.7390093803e-01 -7.6280492544e-01 6.4350903034e-02 -9.1423499584e-01 4.0004199743e-01
2.2249564528e-01 -2.5167599320e-01 -2.1972513199e-01 -8.4698998928e-01 5.3155398369e-01 -7.6111499220e-03
1.9392684102e-01 -4.0479507297e-02 -3.4253839403e-02 -4.3072998524e-01 -8.0588102341e-01 -4.0623599291e-01
-1.8964549527e-02 -5.6232142448e-01 -1.3656394184e-01 -3.4510601312e-02 -9.7208398581e-01 -2.3207999766e-01
2.0436188579e-01 -3.5315129906e-02 2.1818934381e-01 -6.8390503526e-02 -6.1667001247e-01 -7.8424602747e-01
-1.5575490892e-01 -3.8712954521e-01 9.0092712641e-01 -7.9350501299e-01 3.4943100810e-01 4.9824398756e-01
1.5022789128e-02 3.3174373675e-03 5.3686011583e-02 -5.4987597466e-01 8.0380499363e-01 -2.2700999677e-01
-5.9582937509e-02 4.7704439610e-02 -6.4759480953e-01 1.1566299945e-01 -7.6656401157e-01 -6.3166600466e-01
3.0711384490e-02 5.7385448366e-02 -8.1893312931e-01 -5.3993201256e-01 -2.8989699483e-01 7.9021102190e-01
-1.5763217211e-01 -2.6298767328e-01 -5.6905192137e-01 9.0450400114e-01 4.0466800332e-01 1.3460099697e-01
2.7128526941e-02 -1.9669406116e-01 6.8730795383e-01 -1.4911599457e-01 9.7942602634e-01 1.3597300649e-01
-8.2052513957e-02 -2.2597558796e-01 -8.2744216919e-01 5.8433198929e-01 6.6606402397e-01 4.6358901262e-01
-2.1799072623e-02 -3.1064052135e-02 -4.9409687519e-01 -3.0472901464e-01 -9.5051997900e-01 -6.0432799160e-02
1.7665468622e-03 1.2367433310e-01 -6.9778841734e-01 6.6501301527e-01 7.4259501696e-01 -7.9443298280e-02
-3.1247038394e-02 -1.8342448771e-01 5.0955402851e-01 -2.3218399286e-01 9.5188498497e-01 2.0001600683e-01
8.3078213036e-02 -4.0967977047e-01 1.0000000000e+00 8.5020296276e-02 -8.0203801394e-01 5.9118998051e-01
1.3354617357e-01 -5.6706291437e-01 -5.5822730064e-01 8.6703203619e-02 -9.7212702036e-01 2.1783299744e-01
8.0167815089e-02 -4.3347869068e-02 -4.6630305052e-01 2.6209700108e-01 -9.4746702909e-01 1.8333600461e-01
-5.6404870003e-02 -6.9953389466e-02 -8.1189429760e-01 7.6631700993e-01 -6.4056402445e-01 4.9359001219e-02
-1.9889605045e-01 -3.8328495622e-01 -6.6522926092e-01 -9.8651802540e-01 -1.0703100264e-01 -1.2379900366e-01
-3.4781494737e-01 -5.2775794268e-01 7.6633125544e-02 -9.3569302559e-01 -2.4919499457e-01 -2.4976199865e-01
2.8188449144e-01 3.3444809914e-01 -6.8133270741e-01 7.7974098921e-01 2.1228399873e-01 -5.8901602030e-01
1.6725765169e-01 -5.7441389561e-01 -4.6255668998e-01 1.5131400526e-01 -8.0235499144e-01 -5.7734799385e-01
1.1295590550e-01 -3.9014157653e-01 1.5286585689e-01 -1.3597799698e-03 9.7561997175e-01 2.1946099401e-01
1.4489918947e-01 1.2424338609e-01 -7.6676815748e-01 -8.3433002234e-01 2.1398800611e-01 5.0803798437e-01
-2.7740642428e-01 -3.0445817113e-01 5.7265207171e-02 -9.2458200455e-01 3.7957501411e-01 -3.2706901431e-02
3.4672629833e-01 -3.8999322057e-01 5.1729267836e-01 8.6045598984e-01 5.0876897573e-01 2.7738599107e-02
8.7095603347e-02 -5.1484698057e-01 -7.8697025776e-01 -3.7992599607e-01 -8.5707300901e-01 3.4796801209e-01
-9.9571831524e-02 8.9563138783e-02 -8.2215791941e-01 -8.9420300722e-01 6.1093799770e-02 -4.4347301126e-01
-3.3753667027e-02 2.7686336637e-01 -6.2337940931e-01 9.4093000889e-01 -1.9622500241e-01 2.7594599128e-01
2.2680163383e-01 -5.4268515110e-01 6.0881656408e-01 3.1741699576e-01 -1.7516900599e-01 9.3196702003e-01
1.9641111791e-01 -2.2958037257e-01 -7.8453135490e-01 -6.2249302864e-01 7.2772800922e-01 2.8794801235e-01
3.1338945031e-01 -3.4477022290e-01 6.9279545546e-01 9.6871799231e-01 7.6345503330e-02 2.3612800241e-01
-1.7159003019e-01 -5.7037329674e-01 -5.4840469360e-01 -2.2577398922e-03 -9.9679297209e-01 7.9993203282e-02
3.1236582994e-01 3.0345031992e-02 -5.3072482347e-01 9.0918302536e-01 -2.2554400563e-01 3.5002401471e-01
1.5067526698e-01 -3.2710319757e-01 -9.3716484308e-01 5.1219999790e-01 -1.3648699969e-02 -8.5875797272e-01
3.6831352860e-02 4.5060676336e-01 -2.6549080014e-01 8.5331100225e-01 -2.7086299658e-01 -4.4552499056e-01
-3.7737589329e-02 3.4716412425e-01 -5.7805341482e-01 9.6642702818e-01 2.1497699618e-01 1.4072400331e-01
3.2010790706e-01 2.5708130002e-01 -3.9935502410e-01 9.9434798956e-01 1.5155799687e-02 1.0508500040e-01
2.9913961887e-01 9.2717036605e-03 -2.5538229942e-01 9.9156099558e-01 -2.4789700285e-02 1.2724700570e-01
2.9854410887e-01 -3.2175326347e-01 5.5334752798e-01 -8.5558199883e-01 -3.7692400813e-01 -3.5483399034e-01
-3.3777772915e-03 -3.1608149409e-01 -3.1308358908e-01 1.6585700214e-01 9.8155897856e-01 9.5039002597e-02
-1.1287390441e-01 -5.4900753498e-01 -2.8048044443e-01 -4.5189899206e-01 -7.3274797201e-01 -5.0879102945e-01
1.8994130194e-01 1.4773119986e-01 -3.4933486581e-01 -6.7173498869e-01 6.4867800474e-01 -3.5775598884e-01
-1.9973476231e-01 -4.5692908764e-01 -7.9725420475e-01 -8.2835698128e-01 4.7992199659e-01 -2.8896200657e-01
2.7690038085e-01 -1.8731383979e-01 -7.6258140802e-01 9.4177699089e-01 -2.7048999444e-02 -3.3514800668e-01
2.9788497090e-01 -2.4486406147e-01 -1.5953415632e-01 9.7185200453e-01 -2.3472400010e-01 -2.0219700411e-02
-9.7563818097e-02 -6.4276233315e-02 -5.5373162031e-01 9.7975301743e-01 -1.3280600309e-01 1.4982099831e-01
1.0738575459e-01 1.1813265085e-01 -4.9840149283e-01 5.7279700041e-01 7.2311800718e-01 -3.8600900769e-01
1.0057720542e-01 2.2074869275e-01 -4.5260116458e-02 1.0902299732e-01 9.0315300226e-01 4.1524600983e-01
3.1686961651e-01 -1.2048842758e-01 -3.5939934850e-01 9.9192601442e-01 1.2526099384e-01 -1.9826799631e-02
8.7853692472e-02 -5.1222902536e-01 -6.5726298094e-01 -6.4926600456e-01 -7.5133699179e-01 -1.1809200048e-01
-1.8236380816e-01 -2.7084833384e-01 -3.7036278844e-01 8.4127300978e-01 5.1876097918e-01 1.5214300156e-01
8.1558190286e-03 -2.8653779626e-01 -7.8770190477e-01 -6.4608401060e-01 7.0138901472e-01 3.0104601383e-01
-2.4159346521e-01 -3.1974795461e-01 -3.9739918709e-01 -9.5827800035e-01 -2.3883500695e-01 -1.5703900158e-01
2.9031693935e-01 -2.3734551668e-01 3.0470466614e-01 -9.8821997643e-01 1.3598600030e-01 7.0204801857e-02
1.7800499499e-01 -8.6008720100e-02 -5.9820401669e-01 -9.3688100576e-01 -3.4863999486e-01 -2.6513399556e-02
2.2449623048e-01 -5.7315629721e-01 -7.2668236494e-01 1.1502400041e-02 -9.9617797136e-01 8.6581796408e-02
3.0600097775e-01 -2.6418882608e-01 1.2691004574e-01 9.6370297670e-01 -2.1278299391e-01 -1.6124500334e-01
2.9846891761e-01 8.2026869059e-03 -2.5036224723e-01 9.9156099558e-01 -2.4789700285e-02 1.2724700570e-01
-2.3514737189e-01 -3.9261570573e-01 2.2936010361e-01 1.3597499579e-02 9.9863702059e-01 5.0387099385e-02
8.0212526023e-02 2.9733645916e-01 -1.1025650799e-01 -4.9414199591e-01 -1.3587300479e-01 8.5869801044e-01
1.4831362665e-01 -2.2966572642e-01 6.5897893906e-01 -4.6965900064e-01 -8.8242799044e-01 2.7238599956e-02
1.3599318266e-01 1.3185137510e-01 -1.7941918969e-01 9.2249101400e-01 -3.5384100676e-01 -1.5429300070e-01
-8.4664829075e-02 -5.3504580259e-01 1.4422544837e-01 7.4595397711e-01 -6.6571599245e-01 -1.9366599619e-02
1.3851742446e-01 2.0333774388e-01 -1.8749324977e-01 -3.8411399722e-01 6.7123299837e-01 6.3395798206e-01
2.7052611113e-01 -1.2011986226e-01 -6.9151055068e-03 -9.7066599131e-01 -2.3494200408e-01 -5.1093999296e-02
8.2545049489e-02 -2.4959549308e-01 8.9243841171e-01 -6.1755601317e-02 -9.2603600025e-01 -3.7234801054e-01
7.8678064048e-02 1.2897892296e-01 -7.6117229462e-01 4.1078600287e-01 6.1191397905e-01 6.7588198185e-01
9.9838092923e-02 4.8714259267e-01 -2.0709103346e-01 -3.4788000584e-01 5.5883598328e-01 7.5278300047e-01
2.5685951114e-01 1.2536802888e-01 -1.2669254839e-01 -1.8439699709e-01 -4.6167299151e-01 8.6767297983e-01
5.8312028646e-02 -2.0153795183e-01 4.2001983523e-01 3.9237999916e-01 -9.0272098780e-01 -1.7644600570e-01
-3.0077932402e-02 -5.1907336712e-01 -1.6073191166e-01 1.4121499658e-01 1.4708399773e-01 -9.7899198532e-01
2.3810833693e-02 -5.5907422304e-01 4.0385749936e-01 1.6772300005e-01 -9.8457401991e-01 -4.9827601761e-02
-1.4101117849e-01 -1.8703812361e-01 -7.4465560913e-01 8.7872797251e-01 -3.8158899546e-01 2.8675299883e-01
2.7861911058e-01 -2.4303759634e-01 4.2618751526e-01 -8.9311701059e-01 -3.8387501240e-01 -2.3448300362e-01
3.1430673599e-01 1.0564016551e-01 -3.5719823837e-01 9.9561601877e-01 -8.5310898721e-02 3.8365200162e-02
-2.0977238193e-02 -9.3125887215e-03 -7.6997256279e-01 9.2053002119e-01 -3.4133398533e-01 1.9004300237e-01
2.3540751636e-01 -5.5914330482e-01 4.4457668066e-01 -3.3408600092e-01 -9.3450498581e-01 -1.2282799929e-01
-4.4811703265e-02 -2.6006732136e-02 9.1066576540e-02 3.9219099283e-01 -4.5188501477e-01 8.0124098063e-01
-5.7367283851e-02 -5.1720106602e-01 -1.9966463745e-01 9.9816697836e-01 -5.4938398302e-02 2.5371599942e-02
2.2225381434e-01 1.3832795620e-01 -4.2145875096e-01 -6.0088598728e-01 7.1005702019e-01 -3.6708900332e-01
1.2323783338e-01 -4.1601747274e-01 -9.4725906849e-01 2.3744699359e-01 3.7131900899e-03 -9.7139298916e-01
-5.3421299905e-02 -2.3443917930e-01 3.5525530577e-01 3.8894900680e-01 -9.1974502802e-01 -5.2796501666e-02
2.8555434942e-01 -6.6885806620e-02 -6.5626299381e-01 9.7904497385e-01 1.0477899760e-01 -1.7461900413e-01
9.8712824285e-02 -3.0837190151e-01 9.4416314363e-01 -8.0244198442e-02 -2.5658199191e-01 -9.6318602562e-01
3.1873670220e-01 4.9767041206e-01 -3.7080517411e-01 8.9757901430e-01 -2.1430599689e-01 3.8525998592e-01
2.4355882406e-01 -4.8825585842e-01 8.6323279142e-01 3.2771998644e-01 -8.5232400894e-01 4.0760698915e-01
-1.2379603833e-01 -5.8187801391e-02 -3.6021026969e-01 9.0536099672e-01 -4.2276999354e-01 -3.9829500020e-02
-6.5296702087e-02 5.2672022581e-01 -3.9231476188e-01 4.5573699474e-01 7.3321801424e-01 -5.0467401743e-01
-2.4967360497e-01 -2.6337721944e-01 2.0027031004e-01 -7.0363098383e-01 7.0961499214e-01 3.6745399237e-02
-1.4998017251e-01 -5.2523380518e-01 7.2409451008e-01 -2.9291799292e-02 -9.9621802568e-01 8.1807702780e-02
2.6870843768e-01 -1.3372547925e-01 9.1936454177e-02 -7.9844701290e-01 -5.7763600349e-01 -1.6976399720e-01
2.3642237484e-01 2.0121051371e-01 -5.5816298723e-01 -8.8320899010e-01 3.5028898716e-01 3.1183099747e-01
-6.3482917845e-02 -1.5965147316e-01 3.3689725399e-01 -5.7329601049e-01 8.0304199457e-01 -1.6264900565e-01
-4.4555690140e-02 -9.1217763722e-02 2.2231511772e-01 5.3811299801e-01 -7.9425197840e-01 2.8213199973e-01
9.7630225122e-02 -3.6338499188e-01 8.4516927600e-03 1.6909999773e-02 9.8283201456e-01 1.8372599781e-01
2.2242386639e-01 -2.5731861591e-01 -2.8633648157e-01 7.7053201199e-01 -6.3722699881e-01 -1.4921500348e-02
2.0540383458e-01 -5.7168501616e-01 -4.7157645226e-01 1.0835900158e-01 -9.8072099686e-01 -1.6262100637e-01
3.0566632748e-01 4.6573460102e-01 -4.7270715237e-01 -8.6297100782e-01 3.7287399173e-01 -3.4094899893e-01
2.7276781201e-01 -2.3775199056e-01 6.4865094423e-01 5.9893000126e-01 7.7346199751e-01 2.0745900273e-01
-3.2299122214e-01 -4.6053928137e-01 5.2663904428e-01 -9.2347800732e-01 2.8879299760e-01 2.5255900621e-01
1.3563887775e-01 1.8766406924e-02 -6.9434684515e-01 4.2571499944e-01 6.2607997656e-01 6.5329301357e-01
1.2333605438e-01 -2.9984133318e-02 -7.8902971745e-01 -5.8823698759e-01 -7.1650797129e-01 3.7495800853e-01
-1.2390443683e-01 1.7314979434e-01 -7.2977167368e-01 -9.7706502676e-01 -1.7558300495e-01 -1.2047699839e-01
-2.4189315736e-02 -3.9155411720e-01 7.0385175943e-01 -1.3660499454e-01 9.8129200935e-01 -1.3566799462e-01
1.6722580791e-01 1.8875190616e-01 -9.0094065666e-01 5.6232500076e-01 4.0929999948e-01 -7.1851497889e-01
5.3737428039e-02 -5.6673884392e-01 9.6401639283e-02 -4.6625200659e-02 -9.9887001514e-01 9.2301396653e-03
1.1865272373e-01 -1.7977295816e-01 3.8903856277e-01 4.7873698175e-02 -9.7716200352e-01 -2.0703400671e-01
2.6285851002e-01 -3.9991676807e-01 1.0289042443e-01 9.6035802364e-01 -9.9774397910e-02 -2.6030400395e-01
-1.6200861335e-01 -5.5815494061e-01 4.3283215165e-01 1.5876600146e-01 -9.7414499521e-01 -1.6073100269e-01
2.5084361434e-01 -3.3412787318e-01 -2.1044789255e-01 9.4173502922e-01 -3.1860199571e-01 1.0783500224e-01
2.6363623142e-01 -1.0006618500e-01 -1.9530040026e-01 -9.7580897808e-01 -1.8883299828e-01 -1.1017999798e-01
-1.8435150385e-01 -2.5311425328e-01 4.9135109782e-01 -5.6415200233e-01 8.1538301706e-01 1.2993200123e-01
2.7797621489e-01 -2.1192961931e-01 5.4241389036e-01 7.0406699181e-01 6.6183900833e-01 2.5740700960e-01
1.5842278302e-01 9.3178778887e-02 -9.1893416643e-01 4.9503499269e-01 2.3018999398e-01 -8.3782601357e-01
2.6255568862e-01 -3.4378176928e-01 -7.8121852875e-01 9.6600699425e-01 -8.0313697457e-02 -2.4572299421e-01
1.9575397670e-01 -2.7896574140e-01 -1.8116569519e-01 -1.1751499772e-01 9.6553498507e-01 -2.3223300278e-01
1.7723810673e-01 -8.1242032349e-02 -6.8784993887e-01 -8.6839902401e-01 -4.9244099855e-01 5.8186601847e-02
-2.3958949745e-01 -3.1258237362e-01 -5.1305025816e-02 9.1641902924e-01 -3.6192899942e-01 1.7083199322e-01
3.2416728139e-01 -3.4370049834e-01 6.4814424515e-01 9.6860098839e-01 8.1784598529e-02 2.3478600383e-01
6.7711278796e-02 -2.6984497905e-01 9.3157571554e-01 6.2636800110e-02 -5.5049502850e-01 -8.3248502016e-01
2.1628935635e-01 -5.6857138872e-01 -8.4962916374e-01 1.4833499491e-01 -5.1285302639e-01 -8.4556400776e-01
-4.2798608541e-02 2.7101683617e-01 -2.5515872240e-01 -3.0601701140e-01 -5.4455500841e-01 7.8090602160e-01
1.4605291188e-01 9.9353216588e-02 -1.1450829357e-01 -3.7143400311e-01 -9.2070001364e-01 -1.1978500336e-01
8.5638724267e-03 -1.0111419857e-01 2.2536846995e-01 -3.3415201306e-01 8.3615201712e-01 4.3496298790e-01
-1.6791206598e-01 -5.8192547411e-02 -5.2107971907e-01 -8.2684898376e-01 5.3654301167e-01 -1.6865000129e-01
2.3010024428e-01 -2.6794469357e-01 7.0965766907e-01 -8.2829499245e-01 -5.1563197374e-01 -2.1920399368e-01
2.8920659423e-01 -6.7591951229e-03 -6.6680502892e-01 9.6034401655e-01 3.2968699932e-02 -2.7686300874e-01
-8.8533170521e-02 -1.0472919047e-01 1.5279212967e-02 6.9517600536e-01 -6.6263401508e-01 -2.7865099907e-01
9.1871075332e-02 8.0950491130e-02 -4.3965339661e-02 9.3722498417e-01 2.0202000439e-01 -2.8424799442e-01
1.2163697183e-01 -3.8467442989e-01 7.3401260376e-01 1.7342299689e-03 9.9826002121e-01 -5.8946400881e-02
-2.7453327179e-01 -5.6799829006e-01 9.0726487339e-02 -2.5401199237e-02 -9.9966198206e-01 -5.6278100237e-03
7.6472222805e-02 -2.7719348669e-01 -4.8395720124e-01 -9.7392201424e-01 8.3713099360e-02 2.1087400615e-01
-9.3608759344e-02 -2.5071534514e-01 3.9681047201e-01 3.2887899876e-01 -9.3349897861e-01 1.4289000630e-01
2.6028886437e-01 -1.7397467047e-02 2.5656449795e-01 6.4433902502e-01 7.4170601368e-01 1.8627800047e-01
-2.4185290933e-01 -3.8000938296e-01 -2.3048807681e-01 -9.9407601357e-01 -7.6310701668e-02 7.7398099005e-02
1.7959365249e-01 -7.8318104148e-02 -5.5631208420e-01 -9.2211300135e-01 -3.7597998977e-01 9.1354802251e-02
2.7065956593e-01 -1.6975727677e-01 -7.6317077875e-01 7.0772600174e-01 7.0485901833e-01 -4.7926601022e-02
1.8698348105e-01 -3.9485269785e-01 2.2817249596e-01 -5.5621601641e-02 9.9608701468e-01 6.8678401411e-02
-2.7126586437e-01 -3.7883803248e-01 -3.6436103284e-02 -9.3863898516e-01 -1.9701999426e-01 -2.8308901191e-01
2.9230871797e-01 -2.7464824915e-01 -4.7018285841e-02 8.6700600386e-01 -4.9827998877e-01 -4.1432902217e-03
-1.4548178017e-01 2.4539818987e-02 -4.3933579326e-01 -9.7165399790e-01 2.3193900287e-01 4.5743301511e-02
4.7552689910e-02 -3.8065704703e-01 -9.6753573418e-01 1.1519999802e-01 -3.0232700706e-01 -9.4621700048e-01
4.4350586832e-03 3.1440183520e-01 -1.7893750966e-01 -7.8969001770e-01 3.6107201129e-02 6.1244297028e-01
2.3994044960e-01 3.6105906963e-01 -5.6776064634e-01 -9.3915301561e-01 3.1288400292e-01 1.4175599813e-01
-1.9811424613e-01 -5.7241100073e-01 -6.8706405163e-01 7.7615499496e-02 -8.9687198400e-01 4.3542701006e-01
-5.9397857636e-02 7.2587847710e-02 -2.5035277009e-01 9.8268097639e-01 -1.3272699714e-01 -1.2930800021e-01
2.8820189834e-01 1.6815011203e-01 -7.0557248592e-01 9.2036700249e-01 3.5738598555e-02 -3.8941898942e-01
1.2655878067e-01 -3.9618256688e-01 4.0176007152e-01 -7.3451697826e-02 9.9633300304e-01 -4.3880898505e-02
2.6643756032e-01 -5.6822150946e-01 -5.1229226589e-01 3.5776001215e-01 -9.3374598026e-01 -1.1250399984e-02
5.4513126612e-02 -1.6039805114e-01 2.5396504998e-01 5.1121300459e-01 -7.8926801682e-01 -3.4017100930e-01
-9.8409295082e-02 1.3633620739e-01 -8.1799149513e-01 -9.1583001614e-01 -1.0509700328e-01 -3.8756999373e-01
4.4829744846e-02 4.3707090616e-01 -2.0850831270e-01 -5.6427598000e-01 4.4705200195e-01 6.9407302141e-01
2.0017376542e-01 -2.6337179542e-01 -3.4188678861e-01 5.3649199009e-01 -8.4381598234e-01 -1.2266299687e-02
3.4265607595e-01 -3.6219942570e-01 4.2259150743e-01 9.9217700958e-01 -1.2483800203e-01 -3.2660999568e-04
1.7554442585e-01 -3.9480905980e-02 -4.6952444315e-01 -9.1695898771e-01 -3.5478401184e-01 1.8252399564e-01
-1.7617784441e-01 -5.6320723146e-02 -4.8998868465e-01 -7.6860302687e-01 5.9903699160e-01 -2.2450700402e-01
-1.9113770127e-01 -2.6297274232e-01 5.2364325523e-01 -5.5111199617e-01 8.2290697098e-01 1.3820099831e-01
-8.9270249009e-02 -4.6742981672e-01 -9.5977193117e-01 -3.8428300619e-01 7.1998500824e-01 -5.7788199186e-01
2.1517157555e-01 -5.5853921175e-01 -1.5306491405e-02 3.6260500550e-01 -9.3154799938e-01 2.7141299099e-02
-8.0846622586e-02 -2.4632398784e-01 3.3775699139e-01 4.6391999722e-01 -8.8334000111e-01 -6.6989600658e-02
-1.6918571293e-01 -2.5022894144e-01 -1.2002085149e-01 3.2196700573e-01 -9.3715798855e-01 -1.3443100452e-01
1.8848136067e-01 -3.8243064284e-01 7.5704652071e-01 3.0083300546e-02 9.9954497814e-01 -2.2030700929e-03
2.0851950347e-01 -4.1822737455e-01 -1.9030067325e-01 9.2059999704e-01 -3.8184401393e-01 8.1800200045e-02
-7.8475482762e-02 -3.1469607353e-01 9.5853221416e-01 -4.7206398845e-01 4.1014799476e-01 7.8034198284e-01
9.8937056959e-02 2.8960293159e-02 -1.6029214486e-02 -7.8407600522e-02 -5.6620901823e-01 -8.2052397728e-01
2.3053111136e-01 4.9981117249e-01 -4.3610021472e-01 -9.5803797245e-01 2.2651900351e-01 -1.7564800382e-01
2.5003203750e-01 -5.1766086370e-02 -5.5057115853e-02 -7.5401800871e-01 -6.5344399214e-01 -6.6838599741e-02
2.4059894681e-01 -3.4858641028e-01 8.2089787722e-01 -8.9331501722e-01 -2.9313001037e-01 -3.4068199992e-01
2.1828655899e-01 2.6802915335e-01 -1.5884788334e-01 8.3457398415e-01 2.2366000712e-01 5.0345098972e-01
1.5347185731e-01 -5.2501165867e-01 6.9502431154e-01 9.9829196930e-02 -5.7740002871e-01 8.1033498049e-01
1.7130416632e-01 -2.1110649407e-01 7.7714020014e-01 3.0894500017e-01 9.4020402431e-01 1.4342400432e-01
-2.3431205750e-01 -3.0363300443e-01 6.4241421223e-01 -5.6176000834e-01 8.2386898994e-01 7.5268097222e-02
2.2396780550e-01 4.4244319201e-01 -3.0832841992e-01 -9.9294298887e-01 -3.4059099853e-02 -1.1359599978e-01
3.1109490991e-01 8.5715807974e-02 -3.2024779916e-01 9.9164301157e-01 -8.6068198085e-02 9.6104003489e-02
-2.0431850851e-01 -3.6653116345e-01 -6.4962720871e-01 -9.8150002956e-01 -1.6048200428e-01 -1.0441400111e-01
2.3226068914e-01 -4.2015478015e-01 -8.7021744251e-01 7.1509301662e-01 4.2156299949e-01 -5.5760800838e-01
-1.0776647925e-01 -2.0582835376e-01 4.8502424359e-01 -3.8360199332e-01 9.0697997808e-01 1.7388400435e-01
-2.3327755928e-01 -4.4863277674e-01 -1.5640494227e-01 -9.6045601368e-01 -2.1030800045e-01 -1.8246699870e-01
1.4898838103e-01 -2.9779663682e-01 -4.6941399574e-01 5.1812797785e-01 -8.5525202751e-01 9.3114599586e-03
2.2875276208e-01 -3.0922278762e-01 8.9021635056e-01 7.7403301001e-01 2.7362298965e-01 5.7096701860e-01
2.4239763618e-01 -2.5402545929e-01 -2.3501963913e-01 -5.0502902269e-01 8.6064302921e-01 -6.5110899508e-02
-5.4822780192e-02 -2.8647682071e-01 -6.8098038435e-01 1.4105500281e-01 9.8578500748e-01 -9.1276898980e-02
-1.0996579193e-02 -4.8937168717e-01 -9.9794727564e-01 -1.4585900307e-01 -4.3700098991e-01 -8.8755601645e-01
1.4174218476e-01 -3.2194748521e-02 -6.9335097075e-01 1.4265099540e-02 -8.6187601089e-01 -5.0691801310e-01
-1.1122765392e-01 4.7181141376e-01 -4.9639278650e-01 -3.9876800776e-01 7.3845702410e-01 -5.4375201464e-01
1.1019319296e-01 3.3335056901e-01 -1.1982845515e-01 -2.3333600163e-01 5.6629598141e-01 7.9048299789e-01
1.6165677458e-02 3.8269054890e-01 -2.8224796057e-01 9.4612497091e-01 -7.5557403266e-02 -3.1486299634e-01
-2.9504159093e-01 -5.5708998442e-01 -5.8602035046e-02 -8.3584702015e-01 -2.9535999894e-01 -4.6273300052e-01
-2.1523113549e-01 -5.6732267141e-01 -5.6698358059e-01 -1.3076199591e-01 -9.4633501768e-01 2.9555198550e-01
-1.2192961574e-01 1.6398368776e-01 -3.5773208737e-01 -9.7794401646e-01 1.4066700637e-01 1.5439499915e-01
3.2823887467e-01 -5.3131985664e-01 1.5282115340e-01 9.1874998808e-01 -2.2120399773e-01 -3.2705900073e-01
-2.1315538883e-01 -2.0757623017e-01 -9.0456735343e-03 -7.1709400415e-01 6.9460600615e-01 5.7438999414e-02
2.7559897304e-01 -3.0837395787e-01 -3.3749070764e-01 7.6806402206e-01 6.2311297655e-01 -1.4767299592e-01
1.5714372694e-01 4.4594576955e-01 -1.8830554187e-01 2.7083298564e-01 3.9605000615e-01 8.7737900019e-01
7.7302544378e-03 3.3031558990e-01 -2.9277241230e-01 9.2337697744e-01 -1.3728399575e-01 -3.5850799084e-01
-2.4096071720e-01 -5.1158332825e-01 -7.5204676390e-01 -9.8068201542e-01 3.8590401411e-02 -1.9176299870e-01
3.1282716990e-01 1.2762397528e-01 -5.8056682348e-01 9.8804599047e-01 -2.8872199357e-02 -1.5143199265e-01
-9.4788230956e-02 -1.9411580637e-02 -3.8390129805e-01 -5.6323397160e-01 -6.7318499088e-01 -4.7915500402e-01
7.3808375746e-03 2.5253549218e-01 -2.5376993418e-01 9.2851501703e-01 -4.2023698916e-04 -3.7129399180e-01
2.1872286499e-01 -5.0006884336e-01 8.3024686575e-01 -7.1657397784e-03 -9.7617900372e-01 2.1684899926e-01
-1.0247951746e-01 -7.7530536801e-03 -4.9488533288e-02 -8.7573802471e-01 4.4990199804e-01 1.7513200641e-01
2.3370842636e-01 2.0545826852e-01 -4.7156566381e-01 -9.4824099541e-01 -2.3739899695e-01 -2.1090500057e-01
-1.6818305850e-01 -1.9993099570e-01 3.1675478816e-01 -7.0367199183e-01 6.8831902742e-01 1.7624500394e-01
-5.2510434762e-03 -2.0522812009e-01 -9.7085529566e-01 -4.1991999745e-01 -1.2541100383e-01 -8.9885497093e-01
2.8142249584e-01 -1.9711139798e-01 -2.2566044331e-01 -9.6405702829e-01 2.6489600539e-01 -2.0577099174e-02
2.1155793965e-01 -4.2577704787e-01 -2.4343243241e-01 9.4163298607e-01 -3.1207600236e-01 1.2623600662e-01
4.7267612070e-02 3.0667871237e-01 -1.5782625973e-01 -2.0467500389e-01 3.0573400855e-01 9.2985701561e-01
2.1875739098e-01 -5.7205146551e-01 -4.5818769932e-01 -1.5436099842e-02 -9.9882400036e-01 4.5969098806e-02
7.1316696703e-02 -1.8179586530e-01 6.2171077728e-01 -1.3754199445e-01 9.7506499290e-01 1.7415699363e-01
1.9122035801e-01 4.8535011709e-02 8.3965361118e-02 1.1818300188e-01 9.8081099987e-01 1.5505400300e-01
1.3628992438e-01 -2.0939318836e-01 8.2967782021e-01 2.2555799782e-01 9.6314901114e-01 1.4651900530e-01
2.7268993855e-01 -3.3281087875e-01 6.6638302803e-01 -8.0004698038e-01 -5.6282097101e-01 -2.0774400234e-01
2.0886814222e-02 -1.9014091790e-01 6.2468963861e-01 -1.9823800027e-01 9.6843498945e-01 1.5111200511e-01
2.7801954746e-01 -4.8767652363e-02 1.1597571522e-01 9.6127200127e-01 -2.6687499881e-01 6.8807102740e-02
1.7374169827e-01 -5.2551984787e-02 2.2243908048e-01 1.1048900336e-01 -9.3809497356e-01 -3.2828500867e-01
-4.4482387602e-02 2.5664770603e-01 -5.7265263796e-01 9.8940497637e-01 6.4442898147e-03 1.4503599703e-01
-6.3251763582e-02 -2.8566861153e-01 -6.8527555466e-01 1.4105500281e-01 9.8578500748e-01 -9.1276898980e-02
1.1397480965e-01 -8.7414607406e-03 -4.1497877240e-01 5.8206701279e-01 -7.5540900230e-01 3.0092298985e-01
-2.8833127022e-01 -5.6949579716e-01 2.8821986914e-01 5.5349398404e-02 -9.7915798426e-01 -1.9541299343e-01
8.6366645992e-02 -3.0442905426e-01 -9.5744144917e-01 2.8663599491e-01 -2.5282201171e-01 -9.2407798767e-01
3.0202293396e-01 -2.2885683179e-01 -5.2100521326e-01 9.7298401594e-01 -2.1875800192e-01 -7.3810003698e-02
-5.7882428169e-02 -2.2636172175e-01 8.7303578854e-01 -3.3640500903e-01 9.3019902706e-01 1.4684000611e-01
2.4514950812e-01 1.6997924447e-01 -4.2447757721e-01 -9.9579298496e-01 -2.8455600142e-02 -8.7102800608e-02
2.5511234999e-01 -3.4409615397e-01 -8.0725365877e-01 9.2956602573e-01 -8.7228201330e-02 -3.5818800330e-01
-1.5925741196e-01 -5.3403508663e-01 6.8160170317e-01 -1.8207000196e-01 -5.3524202108e-01 8.2484298944e-01
2.5508310646e-03 -3.7123143673e-01 8.2216143608e-02 1.2024199963e-01 9.6718102694e-01 2.2383800149e-01
1.3499324024e-01 -5.5273658037e-01 -1.9609844685e-01 2.4651700258e-01 -9.3024897575e-01 2.7178299427e-01
1.0049252212e-01 -6.4721323550e-02 2.1580736339e-01 -4.5603600144e-01 2.0486199856e-01 8.6606198549e-01
2.0230414346e-02 -4.9844703078e-01 -6.7899543047e-01 -1.2085500360e-01 -9.6786600351e-01 2.2052200139e-01
2.7442060411e-02 -5.2069593221e-02 1.3807946444e-01 -2.5360798836e-01 9.6722197533e-01 -1.2832299806e-02
-4.2037200183e-02 -3.8047683239e-01 8.1226015091e-01 4.8074100167e-02 9.9162197113e-01 -1.1989299953e-01
2.9099982977e-01 5.1244592667e-01 -3.1300228834e-01 3.3669701219e-01 5.9888899326e-01 7.2661298513e-01
1.8313817680e-01 -1.6491879523e-01 -8.5284042358e-01 -8.3000099659e-01 -1.5254700184e-01 5.3649598360e-01
1.5153012937e-03 1.8360988796e-01 -7.7619850636e-01 8.8975501060e-01 -1.4273899794e-01 4.3354600668e-01
-3.3448645473e-01 -4.1980990767e-01 2.5973165035e-01 -7.9985499382e-01 5.8953601122e-01 -1.1259700358e-01
1.2026848644e-01 -1.5056054294e-01 5.1887190342e-01 -9.2159099877e-02 9.2138302326e-01 3.7757200003e-01
-2.0750395954e-01 -4.2708593607e-01 -4.9467611313e-01 -8.8220399618e-01 4.6948400140e-01 3.6070600152e-02
2.8772291541e-01 -2.9970371723e-01 4.3314792216e-02 7.9326099157e-01 -5.8158999681e-01 -1.8025100231e-01
-1.5619798005e-01 -1.4995352924e-01 -8.3697414398e-01 -8.9702898264e-01 1.3709199429e-01 -4.2017099261e-01
2.1778386831e-01 4.8630246520e-01 -2.9478654265e-01 -8.0891901255e-01 -3.6239099503e-01 -4.6295100451e-01
1.0984878056e-02 1.3027286530e-01 -6.1844944954e-01 5.7045698166e-01 7.2475999594e-01 -3.8639599085e-01
-4.3356709182e-02 1.3273882866e-01 -1.2123961747e-01 -8.8046902418e-01 3.6350399256e-01 3.0436599255e-01
-3.1793460250e-01 -4.6579915285e-01 5.6270889938e-02 -7.7663797140e-01 5.2686202526e-01 -3.4532400966e-01
2.1999105811e-01 -4.4054470956e-02 -3.4128183126e-01 -5.8828800917e-01 -7.7716600895e-01 2.2344900668e-01
3.1674227118e-01 6.2531501055e-02 -5.2917474508e-01 9.8009598255e-01 -3.4604299814e-02 -1.9548699260e-01
9.8393052816e-02 -3.4418827295e-01 -9.5943319798e-01 2.6994600892e-01 3.2394600566e-03 -9.6287000179e-01
4.9302794039e-02 1.2784752250e-01 -9.4093149900e-01 -1.5563799441e-01 1.3685199618e-01 -9.7828900814e-01
1.2627357244e-01 -2.0376817882e-01 8.0233520269e-01 2.0420600474e-01 9.7194802761e-01 1.1668799818e-01
-2.7451092005e-01 -5.6781291962e-01 5.7706173509e-02 -2.5401199237e-02 -9.9966198206e-01 -5.6278100237e-03
-3.3852553368e-01 -5.0023686886e-01 4.9814069271e-01 -9.1314697266e-01 -2.9926401377e-01 2.7677500248e-01
-2.0059920847e-01 -2.5183722377e-01 7.5551219285e-02 7.6661902666e-01 -6.3612699509e-01 -8.7390303612e-02
-1.4294195175e-01 -5.5797284842e-01 3.2456123829e-01 6.4117901027e-02 -9.6897798777e-01 2.3868599534e-01
2.5859585404e-01 -3.2710456848e-01 7.2725147009e-01 -8.5814601183e-01 -5.0464200974e-01 -9.4453401864e-02
-2.7088785172e-01 -5.4235374928e-01 5.6986755133e-01 9.5688797534e-02 -4.3867599964e-01 -8.9353597164e-01
1.2159293145e-01 -2.5054663420e-01 -9.5696043968e-01 4.0465998650e-01 -9.0660996735e-02 -9.0996199846e-01
2.8901892900e-01 -2.7731001377e-01 -9.9881768227e-02 8.5092300177e-01 -5.2456897497e-01 -2.7509899810e-02
3.0378162861e-01 -2.3605020344e-01 -4.4715446234e-01 9.4654500484e-01 -3.2032299042e-01 -3.8011100143e-02
-1.5343390405e-01 -1.6456989944e-01 1.8675144017e-01 -6.9460898638e-01 7.1048700809e-01 1.1281000078e-01
2.3678822815e-01 4.9775844812e-01 -4.5535451174e-01 -4.6945500374e-01 7.4623602629e-01 -4.7195699811e-01
2.3146802187e-01 1.5686349571e-01 -5.1512945443e-02 4.0822300315e-01 7.9175400734e-01 -4.5440098643e-01
-3.7399664521e-02 1.8932096660e-01 -1.3410948217e-01 -6.2575298548e-01 7.7954000235e-01 -2.7390599251e-02
2.6223120093e-01 -1.5074482560e-01 4.4422376156e-01 7.2844797373e-01 6.3425797224e-01 2.5899800658e-01
3.5375842452e-01 -4.7565358877e-01 6.8950295448e-01 9.0491998196e-01 4.0643799305e-01 1.2620599568e-01
-1.4715851843e-01 -5.6587111950e-01 2.6579374447e-02 2.5853499770e-01 -9.6279597282e-01 7.8634597361e-02
1.0430192947e-01 -5.4741126299e-01 -9.5185232162e-01 8.2744797692e-03 -9.9966102839e-01 2.4673800915e-02
-1.9935402274e-01 -3.7693637609e-01 7.2050265968e-02 -2.0255399868e-02 9.8642200232e-01 1.6297900677e-01
-1.4427588880e-01 6.5985225141e-02 -5.3558093309e-01 -9.8909497261e-01 1.2190499902e-01 8.2650102675e-02
2.7246502042e-01 -1.2336087972e-01 -7.6565362513e-02 -9.6420598030e-01 -2.6513499022e-01 -3.0435200315e-03
2.0268514752e-01 -2.6847380400e-01 -6.1887288094e-01 5.0927901268e-01 -8.6055302620e-01 9.1352397576e-03
1.2298852205e-01 -2.1220413968e-02 2.8239713982e-02 5.0751801580e-02 -7.7188497782e-01 -6.3373398781e-01
-1.7147690058e-01 -5.6668221951e-01 1.1964420974e-01 -1.5189799666e-01 -9.8737198114e-01 4.4982198626e-02
-1.0137795657e-01 -8.2035455853e-03 -4.2825028300e-02 -8.7573802471e-01 4.4990199804e-01 1.7513200641e-01
-2.5072368979e-01 -5.3094071150e-01 -6.0803478956e-01 -9.8520398140e-01 1.6735500097e-01 -3.6955598742e-02
-2.3814448714e-01 -2.2209572792e-01 -2.1818187833e-01 -9.5891898870e-01 2.8367799520e-01 -1.0763100581e-03
-1.3155169785e-01 1.8144878745e-01 -4.8225542903e-01 -9.9705398083e-01 4.1331399232e-02 6.4606696367e-02
-2.0228079520e-03 -3.9994591475e-01 6.0011380911e-01 -1.6946600378e-01 9.8153001070e-01 -8.8773198426e-02
3.2110717893e-01 1.3846343756e-01 -5.2860844135e-01 9.8804599047e-01 -2.8872199357e-02 -1.5143199265e-01
-1.1588399066e-03 -6.6487453878e-02 -8.9976185560e-01 3.1933701038e-01 -5.4983001947e-01 7.7182298899e-01
8.9953154325e-02 1.0433265567e-01 2.2166350856e-02 -3.3358699083e-01 4.1080000997e-01 8.4850597382e-01
1.0880005546e-02 -3.1523263454e-01 -3.4482973814e-01 8.5388801992e-02 9.9407702684e-01 6.7223399878e-02
2.4347074330e-01 -3.7254774570e-01 2.1062271297e-01 -6.3001197577e-01 6.8258202076e-01 3.7035998702e-01
-5.0555478781e-02 -1.8364128470e-01 2.1296943724e-01 5.3355801105e-01 -7.4119800329e-01 -4.0735799074e-01
3.0961123109e-01 -2.0582701266e-01 -2.2792454064e-01 9.5705497265e-01 -2.8794199228e-01 3.3696599305e-02
-4.8239216208e-02 9.9874883890e-02 -2.7047753334e-02 1.2122199684e-01 -2.6354199648e-01 9.5700097084e-01
-2.8248295188e-02 5.0277853012e-01 -4.7973316908e-01 1.4569999278e-01 7.4155700207e-01 -6.5487700701e-01
3.6721765995e-01 -5.3784340620e-01 3.1913948059e-01 8.8451498747e-01 -4.5106500387e-01 -1.1905100197e-01
2.9532143474e-01 -3.8860371709e-01 4.7695150971e-01 -2.8843499604e-04 9.9689102173e-01 7.8790701926e-02
2.6631807908e-02 2.4913457036e-01 -3.1265473366e-01 6.1023000628e-02 9.9084597826e-01 1.2041699886e-01
2.5635480881e-01 -2.3727166653e-01 -1.8387421966e-01 -9.3162697554e-01 3.5305199027e-01 -8.6167998612e-02
6.2118653208e-02 -5.6482177973e-01 -8.8300806284e-01 -3.6056399345e-02 -9.2305797338e-01 -3.8296601176e-01
2.9508903623e-01 -3.8944378495e-01 4.3007820845e-01 2.2895399481e-02 9.9972701073e-01 -4.7044600360e-03
2.2460934520e-01 1.1933855712e-01 -8.6272113025e-02 8.7848401070e-01 -2.6133298874e-01 -3.9996299148e-01
-5.4016392678e-02 2.0377814770e-01 -1.5660682321e-01 5.8447897434e-01 6.9407302141e-01 4.2029500008e-01
-2.1401372552e-01 -3.9197957516e-01 -4.4061553478e-01 -9.9753600359e-01 -5.5854599923e-02 -4.2457301170e-02
3.1159010530e-01 -1.5050022304e-01 -2.3279543966e-02 9.8997199535e-01 -8.7481498718e-02 1.1091200262e-01
-3.7944484502e-02 -5.0805145502e-01 -4.2070135474e-01 2.8822299838e-01 -9.1726297140e-01 2.7487701178e-01
1.2384187430e-02 -1.8626579642e-01 -9.1789764166e-01 2.7608099580e-01 1.4977499843e-01 9.4939297438e-01
1.3140783645e-02 -8.2918114960e-02 2.0183594525e-01 3.2697099447e-01 -9.3386197090e-01 -1.4488500357e-01
1.3685086370e-01 -3.5391601920e-01 9.4519281387e-01 -3.1267398596e-01 9.5882900059e-02 -9.4500899315e-01
1.5435053408e-01 -3.7335801125e-01 8.5316568613e-01 -2.6766399387e-03 9.9131900072e-01 -1.3144999743e-01
1.2338551134e-01 -3.4801325202e-01 -6.4065404236e-02 -3.3028700948e-01 9.3709301949e-01 1.1299499869e-01
4.1514825076e-02 -2.3446424305e-01 5.7473522425e-01 1.9599300623e-01 -9.2736798525e-01 -3.1870999932e-01
-1.0133730620e-01 -3.1985376030e-02 -8.7269699574e-01 -8.2157599926e-01 2.2766099870e-01 -5.2266997099e-01
3.1159758568e-01 -5.4655522108e-01 2.4919092655e-01 3.9272498339e-02 -9.9623900652e-01 -7.7241800725e-02
6.9082140923e-02 -3.4259080887e-01 9.5426416397e-01 -4.9732599407e-02 -1.4298400283e-01 -9.8847502470e-01
-5.9149160981e-02 5.1848220825e-01 -3.2682669163e-01 -6.8001300097e-01 4.9989199638e-01 5.3636801243e-01
3.8510933518e-02 1.1645253003e-01 -1.1048131622e-02 -4.4346299767e-01 3.5291799903e-01 8.2388699055e-01
4.6464744955e-02 1.3879540563e-01 -7.5026500225e-01 4.1604700685e-01 6.2089800835e-01 6.6437202692e-01
-3.5826992244e-02 2.4752219021e-01 -4.8174726963e-01 9.9540001154e-01 -6.6879200749e-03 -9.5573797822e-02
-1.8361440301e-01 -3.3239153028e-01 5.1431727409e-01 5.9585100412e-01 -7.9330497980e-01 -1.2501500547e-01
-1.3506096601e-01 -5.7276350260e-01 -7.1851211786e-01 2.5042399764e-02 -9.8151099682e-01 1.8975900114e-01
4.5966669917e-02 -4.0038761497e-01 2.9201841354e-01 -7.8763598576e-03 9.9995797873e-01 4.6924301423e-03
-2.4768048525e-01 -3.2794937491e-01 -2.2488811612e-01 -9.6995699406e-01 -2.1471300721e-01 -1.1437100172e-01
1.4013929665e-01 -4.3624189496e-01 -9.5253658295e-01 2.9843100905e-01 4.7372901440e-01 -8.2856500149e-01
-1.4404512011e-02 -3.9900150895e-01 3.3682683110e-01 -8.0721296370e-02 9.9444699287e-01 6.7523300648e-02
-1.2094119191e-01 1.3309115171e-01 -3.2572308183e-01 -9.9463397264e-01 7.6371103525e-02 6.9783799350e-02
2.6318371296e-01 -5.9856414795e-02 -2.5562483072e-01 -9.8031002283e-01 -1.5801100433e-01 -1.1842399836e-01
2.6980662346e-01 -5.6335645914e-01 3.8942474127e-01 -3.5481700301e-01 -8.8249301910e-01 3.0872398615e-01
-2.0701347291e-01 -3.2890731096e-01 -1.0281927139e-01 6.4702701569e-01 7.0503097773e-01 2.9032400250e-01
1.7753618956e-01 -4.0270842612e-02 -4.6105474234e-01 -9.1695898771e-01 -3.5478401184e-01 1.8252399564e-01
7.3775231838e-02 5.5946547538e-02 -1.0141216964e-01 -3.6966601014e-01 -9.1533702612e-01 1.5970300138e-01
-3.6539135035e-03 -2.3270553350e-01 5.3790736198e-01 2.1591199934e-01 -9.6179300547e-01 -1.6833199561e-01
3.0270082876e-02 -2.5262716413e-01 -8.6355119944e-01 -2.8642499447e-01 9.1201001406e-01 -2.9359498620e-01
-1.1385920458e-02 3.2770055532e-01 -1.5796920657e-01 -5.0622601062e-02 9.4607198238e-01 3.1997498870e-01
2.2365142405e-01 4.3396133184e-01 -3.0302116275e-01 -9.9294298887e-01 -3.4059099853e-02 -1.1359599978e-01
2.1813750267e-01 -1.2920813262e-01 -7.0706969500e-01 -8.1012701988e-01 -5.8613598347e-01 1.1765699834e-02
1.2012460269e-02 -5.5160510540e-01 3.7319742143e-02 -7.0485299826e-01 -4.0763700008e-01 -5.8052897453e-01
-1.7952249944e-01 -3.2330870628e-01 4.7075068951e-01 6.5844601393e-01 -7.4560701847e-01 -1.0256300122e-01
-2.2018140554e-01 -1.8683013320e-01 -5.5024605989e-01 -9.7978699207e-01 1.9000400603e-01 -6.2575601041e-02
2.7493980527e-01 -3.2125395536e-01 2.2276426852e-01 -9.8154902458e-01 -2.3825500160e-02 1.8971799314e-01
-6.3356101513e-02 -3.3243473619e-02 -4.8827458173e-02 5.2326101065e-01 -6.5602797270e-01 -5.4389798641e-01
2.2104655206e-01 -5.7158219814e-01 -5.5065393448e-01 -4.3769698590e-02 -9.8172599077e-01 1.8520000577e-01
-3.6932416260e-02 -5.2823263407e-01 -6.5922284126e-01 8.4028100967e-01 -5.3484302759e-01 8.8715903461e-02
2.0411053300e-01 2.7714785933e-01 -6.3926535845e-01 -8.7949699163e-01 -2.0332500339e-02 4.7547098994e-01
3.6093145609e-01 -5.0868695974e-01 6.3853436708e-01 9.6811699867e-01 -1.7354300618e-01 1.8064300716e-01
9.5862030983e-02 5.5412375927e-01 -2.7548614144e-01 4.4532200694e-01 -5.1386099309e-02 -8.9389497042e-01
1.7026290298e-01 9.6088528633e-02 -1.8025925756e-01 -8.9083802700e-01 -3.4494799376e-01 -2.9566499591e-01
1.5284858644e-01 1.4403903484e-01 -1.8847829103e-01 -8.3224499226e-01 -3.5947400331e-01 -4.2207300663e-01
-2.9565674067e-01 -5.4396355152e-01 5.3416436911e-01 -3.7766698748e-02 -2.2210399806e-01 9.7429102659e-01
-1.5743096173e-01 -5.6666976213e-01 -8.5839563608e-01 -3.1353499740e-02 -9.8028701544e-01 1.9507400692e-01
-1.0586211830e-01 9.3015544116e-02 -8.0760592222e-01 -8.3487200737e-01 2.3016199470e-01 -5.0001299381e-01
-8.5977762938e-02 -1.4219790697e-01 3.6697345972e-01 -3.9363801479e-01 8.0441600084e-01 4.4493100047e-01
2.3931421340e-02 -3.8268807530e-01 7.3102498055e-01 -7.8710600734e-02 9.9358898401e-01 -8.1153698266e-02
-8.2126356661e-02 -8.2632221282e-02 1.9480179250e-01 -5.8276200294e-01 7.6456499100e-01 2.7537000179e-01
-1.9036063552e-01 -5.5514931679e-01 -2.9960605502e-01 2.4866400659e-01 -7.8960901499e-01 5.6096702814e-01
-2.2674879432e-01 -4.5959833264e-01 -5.4217672348e-01 -8.8220399618e-01 4.6948400140e-01 3.6070600152e-02
1.7652203143e-01 7.2436116636e-02 -1.7004100978e-01 -7.6954299212e-01 -4.6964201331e-01 -4.3271198869e-01
-2.4137395620e-01 -2.7567392588e-01 -3.6267489195e-01 -9.9570202827e-01 -3.1803399324e-02 -8.6984597147e-02
8.1729374826e-02 -2.6789864898e-01 -8.2778084278e-01 2.5989699364e-01 -9.5493501425e-01 -1.4336100221e-01
-3.5535657406e-01 -5.3376102448e-01 4.0938633680e-01 -9.8293602467e-01 -6.6126897931e-02 1.7165400088e-01
-5.2214052528e-02 1.9985556602e-01 -8.6540067196e-01 -3.9638298750e-01 6.5388900042e-01 -6.4444500208e-01
2.6681289077e-01 -2.1223585308e-01 -4.9632233381e-01 -9.7262501717e-01 2.1712499857e-01 8.2806997001e-02
8.3717070520e-02 -1.9227223098e-01 4.3509081006e-01 3.1936201453e-01 -9.4663602114e-01 -4.3455701321e-02
1.7618870735e-01 -3.0406320095e-01 -6.1281090975e-01 -4.8431900144e-01 8.7453299761e-01 2.5048099458e-02
1.3729934394e-01 -3.8782194257e-01 6.3897132874e-01 -7.2512999177e-02 9.9708598852e-01 -2.3683700711e-02
-7.4199303985e-02 5.1554197073e-01 -4.1881868243e-01 2.8626599908e-01 8.3753901720e-01 -4.6538200974e-01
-1.9625459611e-01 -2.3249688745e-01 -1.8295355141e-01 3.1104201078e-01 -8.1209200621e-01 -4.9371999502e-01
2.8421434760e-01 -4.3992194533e-01 -5.9890925884e-01 9.0957599878e-01 4.0396198630e-01 9.7395896912e-02
-1.7683237093e-03 2.5670188665e-01 -2.7678892016e-01 9.2856097221e-01 -9.8323397338e-02 -3.5791999102e-01
1.3640144840e-02 1.4833725989e-02 -8.4044271708e-01 4.1930899024e-01 -1.6270299256e-01 8.9314502478e-01
